# .PCD v0.7 - Point Cloud Data file format
VERSION 0.7
FIELDS x y z
SIZE 4 4 4
TYPE F F F
COUNT 1 1 1
WIDTH 1406
HEIGHT 1
VIEWPOINT 0 0 0 1 0 0 0
POINTS 1406
DATA ascii
-0.00508906 -0.05536157 -0.03488863
0.005486151 -0.05508054 -0.03473882
0.0147823 -0.05468821 -0.03330515
0.02258536 -0.05522668 -0.03098859
-0.01341982 -0.04866408 -0.03128491
-0.005047275 -0.04568423 -0.03283202
0.004988485 -0.04492798 -0.03310302
0.01461759 -0.047669 -0.0311954
0.0205221 -0.04998446 -0.03061922
-0.003944001 -0.03427381 -0.03431937
0.004459388 -0.03473111 -0.03457558
-0.01045166 -0.02131662 -0.03159199
-0.007270414 -0.02469516 -0.0354315
0.007140945 -0.02538263 -0.03570024
0.01092328 -0.02202169 -0.03166262
-0.01210141 -0.01425261 -0.0329212
-0.009039131 -0.0161414 -0.03776765
0.009157306 -0.01631689 -0.03746334
0.01175393 -0.01422514 -0.03343565
-0.01406358 -0.004965783 -0.03433648
0.01495197 -0.004634658 -0.03439
-0.02079255 0.00967288 -0.03041109
-0.015217 0.005013897 -0.03487373
0.01610523 0.004740047 -0.03502051
0.0216145 0.007409213 -0.03009422
-0.02244576 0.0159373 -0.0317996
-0.01580477 0.01489528 -0.03638823
0.01638023 0.01447264 -0.03661044
0.02271052 0.01506995 -0.0318282
-0.02306951 0.02455972 -0.0321302
-0.01542246 0.02612662 -0.03622757
-0.005679767 0.02919635 -0.03180266
0.005162421 0.02910628 -0.0317531
0.01610972 0.02592114 -0.0364828
0.02330051 0.02457434 -0.03255517
-0.02120933 0.03549563 -0.0314557
-0.01482721 0.03330933 -0.03462425
-0.005048023 0.03278536 -0.03527643
0.005508712 0.03315994 -0.03534596
0.01486914 0.03307867 -0.03404757
0.02140554 0.03511258 -0.03123867
-0.02134371 0.04167011 -0.03114844
-0.01459037 0.04472836 -0.03427548
-0.00539554 0.04533453 -0.03672856
0.005059604 0.04584351 -0.03633218
0.01429756 0.04447246 -0.03363029
0.02054862 0.04176008 -0.03068373
-0.01182112 0.05501149 -0.03090442
-0.00523624 0.0546175 -0.03240406
0.004419087 0.05472911 -0.03187671
0.0115694 0.05116775 -0.03049822
-0.01153664 0.06296839 -0.03062837
-0.004995709 0.06430094 -0.03151429
0.003912269 0.06401917 -0.03087128
-0.02207731 -0.09184983 -0.02023051
-0.01449213 -0.09365018 -0.0215802
-0.00456519 -0.09451566 -0.02217321
0.004817316 -0.09375885 -0.02206452
0.01304391 -0.09220231 -0.02132519
0.020515 -0.09007604 -0.02000339
-0.03071102 -0.08070625 -0.02036565
-0.0240321 -0.08405799 -0.02238993
-0.01542986 -0.08518728 -0.02463547
-0.00527655 -0.08512462 -0.02608471
0.005241428 -0.08504956 -0.02584814
0.01496409 -0.08545796 -0.0237011
0.02374637 -0.08309822 -0.02164069
-0.03297877 -0.07410232 -0.02160345
-0.02511385 -0.07498488 -0.02544181
-0.01522085 -0.07630353 -0.02817744
-0.004419518 -0.07781585 -0.02885964
0.00587185 -0.07694186 -0.02879088
0.01504886 -0.07578393 -0.02753932
0.02525052 -0.07528818 -0.02405358
0.03203589 -0.07338699 -0.02116205
-0.04078692 -0.0620089 -0.02051913
-0.03500671 -0.06479017 -0.023972
-0.02642138 -0.06596275 -0.02860864
0.01861077 -0.06920529 -0.0294565
0.02580841 -0.06554668 -0.02793374
0.03452973 -0.06435923 -0.0232784
0.04073217 -0.0603309 -0.0203985
-0.04176099 -0.05428853 -0.02148948
-0.0350302 -0.0553687 -0.02558246
-0.02660594 -0.05300435 -0.02842778
-0.01910749 -0.05042974 -0.02987906
0.02733525 -0.05495988 -0.02899283
0.03503494 -0.05500399 -0.02532556
0.04189413 -0.05368412 -0.02116834
-0.04104946 -0.0464626 -0.02064218
-0.03546929 -0.04471019 -0.0226732
-0.02497274 -0.0449136 -0.02438411
-0.01538102 -0.044796 -0.02639172
-0.008517145 -0.04191085 -0.0282074
0.00975473 -0.04199399 -0.02864448
0.01556062 -0.04357668 -0.02735389
0.0242718 -0.04491723 -0.02629274
0.03509286 -0.0445756 -0.02352378
0.04103754 -0.04606503 -0.02082786
-0.03533632 -0.03768952 -0.02116548
-0.02474168 -0.03700656 -0.02196441
-0.01516544 -0.03483717 -0.021786
-0.007888926 -0.03471496 -0.02671578
0.008158252 -0.03464934 -0.02810096
0.01454701 -0.0352136 -0.02360114
0.02490053 -0.03577651 -0.02280135
0.03432122 -0.03650005 -0.02181729
-0.03301509 -0.02551839 -0.02090815
-0.02474206 -0.02526765 -0.02178939
-0.01477611 -0.0248391 -0.02470513
-0.008835604 -0.02806873 -0.02801992
0.009165907 -0.02852643 -0.02886876
0.01458946 -0.02570714 -0.02493513
0.02489676 -0.02445308 -0.02180769
0.03275249 -0.02417571 -0.02077738
-0.03143952 -0.01476401 -0.02038955
-0.02431736 -0.01424768 -0.02333122
-0.01684835 -0.01554835 -0.02729617
0.01721032 -0.01541397 -0.0266627
0.02438751 -0.01486633 -0.02212939
0.03021052 -0.01848756 -0.02006764
-0.03265274 -0.004657309 -0.02112424
-0.02487243 -0.004454183 -0.02516374
-0.01851614 -0.005320635 -0.02868525
0.01831085 -0.005795756 -0.02862306
0.02465527 -0.004775773 -0.02456844
0.03155596 -0.003943292 -0.02092653
-0.03260943 0.0052784 -0.0218541
-0.02569964 0.004539533 -0.02596895
-0.01909595 0.002220572 -0.0294302
0.01948214 0.001389579 -0.02975614
0.02506958 0.004871335 -0.02687075
0.03269766 0.005702475 -0.02197824
-0.03265681 0.01542972 -0.02242972
-0.02708519 0.01481418 -0.02748649
0.02708274 0.01396605 -0.02805365
0.03340595 0.01548636 -0.02282419
-0.03262382 0.02478722 -0.02365775
-0.02593044 0.02654219 -0.02697424
-0.01553861 0.02832012 -0.02731029
-0.005421419 0.0272357 -0.02881874
0.004918409 0.02724405 -0.02910533
0.01623129 0.02801043 -0.02686257
0.02648996 0.02568534 -0.02686385
0.03344904 0.024672 -0.02358739
-0.03188061 0.03410656 -0.02267565
-0.02459825 0.03436283 -0.02583725
-0.01663301 0.03587379 -0.02701357
-0.009138415 0.03873183 -0.02942963
0.007264516 0.03900731 -0.0293247
0.01647506 0.03579173 -0.02733815
0.02466882 0.03467631 -0.02564768
0.03265148 0.03391846 -0.02248413
-0.03131904 0.04208299 -0.02060147
-0.02565117 0.04460179 -0.02535299
-0.01583701 0.04237997 -0.02537557
-0.004817599 0.04221043 -0.02812064
0.004494661 0.04184981 -0.02811642
0.01641786 0.04433875 -0.02635518
0.02500841 0.04488182 -0.02465389
0.03110938 0.04233792 -0.02056607
-0.02401231 0.05549828 -0.02349867
-0.01703628 0.05545474 -0.02838586
0.009834317 0.05786009 -0.02980342
0.01550145 0.05504235 -0.0274815
0.02336089 0.0545946 -0.0222981
-0.02367538 0.0649204 -0.0229007
-0.01631838 0.06489578 -0.02810379
-0.006669072 0.06933389 -0.02958745
0.006996856 0.06686001 -0.0292027
0.01490205 0.06504468 -0.02625369
0.02193704 0.06389855 -0.02160105
-0.02190992 0.07132913 -0.02164353
-0.01469497 0.07327881 -0.02404416
-0.005518726 0.07429554 -0.02556964
0.00481492 0.07367302 -0.02537658
0.01368821 0.0724225 -0.02350591
0.02021083 0.07067596 -0.02044055
-0.03027796 -0.1000315 -0.01070233
-0.02315609 -0.1023883 -0.01260319
-0.01489518 -0.1041205 -0.01410432
-0.004524074 -0.1052401 -0.0142152
0.00525977 -0.104815 -0.01400809
0.01460933 -0.1030063 -0.01358622
0.02241378 -0.1018537 -0.01127548
-0.03355038 -0.09437304 -0.01257795
-0.0253677 -0.09542941 -0.01683773
-0.01538832 -0.0978996 -0.01906017
-0.005537619 -0.09921861 -0.01931771
0.005154601 -0.09864616 -0.01905994
0.01567767 -0.09726654 -0.01761253
0.02519653 -0.09499212 -0.01516424
0.0329079 -0.09311891 -0.01202996
-0.04198543 -0.08343737 -0.01096044
-0.03505009 -0.08511917 -0.01583164
-0.02846754 -0.08861582 -0.01869703
0.02698954 -0.08664224 -0.01870479
0.03494893 -0.0848437 -0.01449704
0.04049332 -0.08323143 -0.01057433
-0.04263632 -0.07454364 -0.01326191
-0.03717058 -0.07551998 -0.01795868
0.03636488 -0.07595853 -0.01672477
0.04180708 -0.07382803 -0.01251463
-0.0445949 -0.06478455 -0.01495838
-0.03944365 -0.06733462 -0.01914876
0.03863398 -0.06652834 -0.01902089
0.04400196 -0.06441619 -0.01444143
-0.05078816 -0.05389027 -0.01170562
-0.04707379 -0.05537822 -0.01622409
0.04666747 -0.05535145 -0.01589645
0.05080262 -0.05265539 -0.01105485
-0.05087694 -0.0466494 -0.01121703
-0.04596658 -0.04461768 -0.01566718
0.04570984 -0.04460113 -0.01596886
0.05059825 -0.04749067 -0.01104755
-0.0434396 -0.03528216 -0.01391955
-0.03522959 -0.03717276 -0.01550534
-0.02473333 -0.03685609 -0.01734555
-0.01875904 -0.03356283 -0.01832028
0.01889075 -0.03246241 -0.0192927
0.02616737 -0.03535018 -0.01744025
0.03556165 -0.03497902 -0.01647984
0.04356889 -0.0349765 -0.01425789
-0.04288128 -0.02560426 -0.01361698
-0.03644168 -0.02513391 -0.01766901
-0.02622191 -0.02772309 -0.01777204
0.01909212 -0.02912738 -0.01967499
0.02604535 -0.02595341 -0.01855749
0.03613042 -0.02320436 -0.01769799
0.04385997 -0.02529074 -0.01359062
-0.04472531 -0.01479142 -0.01361363
-0.03636728 -0.01422433 -0.01843794
0.02959864 -0.01552497 -0.01991096
0.03517654 -0.01472948 -0.01787122
0.04463208 -0.01558964 -0.01299515
-0.04511376 -0.004867811 -0.01333531
-0.03737993 -0.004940147 -0.01869952
0.03620709 -0.005396652 -0.01809279
0.04395349 -0.005151442 -0.01332312
-0.0436281 0.004313757 -0.01323609
-0.03762555 0.005365547 -0.01829113
0.03749057 0.003456045 -0.01843746
0.04353642 0.00464913 -0.01306817
-0.04247187 0.01461627 -0.01201812
-0.03747619 0.01555294 -0.01714243
0.03836534 0.01527307 -0.01754174
0.04222252 0.0149713 -0.01299336
-0.04112186 0.02456169 -0.01165262
-0.03752805 0.02544757 -0.01693423
0.03826538 0.02477119 -0.01732398
0.0413124 0.02542077 -0.01250812
-0.04044941 0.03277049 -0.01089179
-0.03681364 0.03551309 -0.01560255
-0.02307809 0.0370138 -0.01993942
0.02377605 0.03362692 -0.01984362
0.03707775 0.0350655 -0.01641022
0.04077544 0.0333342 -0.01136563
-0.03461115 0.04478713 -0.01488163
-0.02932925 0.04950472 -0.01979311
0.02719819 0.04538343 -0.01951518
0.03496478 0.04510117 -0.01475024
-0.03310888 0.05446894 -0.0135315
-0.0289524 0.05522069 -0.01879401
0.02774781 0.05600853 -0.01812811
0.03266784 0.05433312 -0.01336892
-0.0313382 0.06373993 -0.01288256
-0.02804602 0.06582094 -0.01699392
0.02619174 0.06578151 -0.01591372
0.03115845 0.06151977 -0.01165992
-0.02399655 0.07324808 -0.01458508
-0.01539876 0.07730387 -0.01555507
-0.005249878 0.07890443 -0.01651378
0.005117626 0.07857043 -0.01662701
0.01497828 0.07649168 -0.01513234
0.02248478 0.07236812 -0.01410013
-0.01000764 0.08031795 -0.01075452
-0.005264944 0.08052886 -0.01164143
0.003882052 0.08050268 -0.01145684
-0.02342122 -0.1112755 -0.001831653
-0.01419235 -0.1129776 -0.003724126
-0.005028378 -0.1134002 -0.004852588
0.004998637 -0.1132745 -0.004536125
0.01429068 -0.1122938 -0.003224059
0.02192207 -0.1109352 -0.001040694
-0.04018243 -0.1004195 -0.001080754
-0.03423748 -0.1032823 -0.003787896
-0.02572198 -0.1064162 -0.006618968
-0.01684155 -0.1088953 -0.008314972
-0.004921285 -0.1096312 -0.009666688
0.006338961 -0.1093546 -0.009245704
0.01544684 -0.1079984 -0.0082275
0.02589317 -0.1052033 -0.005423577
0.0326724 -0.1025197 -0.003286889
-0.04319071 -0.09441879 -0.003609029
-0.03789771 -0.09671685 -0.007194589
0.03633618 -0.09619656 -0.006518567
0.04211169 -0.09293497 -0.003096577
-0.05093318 -0.08340254 -0.0007872658
-0.04599486 -0.08632382 -0.005616442
0.03928782 -0.08802435 -0.009742117
0.04444815 -0.08494838 -0.005017026
-0.05148484 -0.07465126 -0.002594328
-0.04776184 -0.07520241 -0.007365538
0.0465351 -0.07517984 -0.006329843
0.05053678 -0.07375672 -0.001547579
-0.05260595 -0.06452285 -0.004240875
-0.04849036 -0.06736116 -0.008902121
0.04850551 -0.06524135 -0.008014397
0.05161335 -0.06483798 -0.003234445
-0.05392087 -0.05483016 -0.005344104
0.04943269 -0.05985513 -0.009588553
0.05343428 -0.05507094 -0.004654509
-0.0541258 -0.04497221 -0.005220067
-0.04973197 -0.04052775 -0.009580128
0.04976157 -0.04159214 -0.009335112
0.05394068 -0.04521432 -0.004372769
-0.05290668 -0.03487694 -0.003616448
-0.04798334 -0.03409069 -0.008268364
-0.03959582 -0.03599764 -0.009124215
0.04826011 -0.03420721 -0.008566998
0.0531808 -0.0346916 -0.00360356
-0.05362124 -0.02463476 -0.003747198
-0.04859569 -0.02610466 -0.008508924
0.04880383 -0.02573627 -0.009046246
0.05465537 -0.02439437 -0.003596023
-0.054343 -0.01507988 -0.004703991
-0.04940536 -0.01707105 -0.009690299
0.04935961 -0.01553563 -0.009541652
0.054415 -0.01485484 -0.00463791
-0.05380154 -0.005039013 -0.004298299
-0.04935233 -0.004115633 -0.009426182
0.04881158 -0.004130965 -0.009116882
0.05311393 -0.005361628 -0.004278506
-0.05226609 0.004592317 -0.003148592
-0.04839384 0.005979702 -0.007874077
0.04832071 0.004881527 -0.007784104
0.05217443 0.004594616 -0.002794333
-0.05086604 0.01369952 -0.001682375
-0.04752654 0.0150606 -0.005988077
0.04775862 0.01534736 -0.005907052
0.05113315 0.01321559 -0.001725619
-0.04575771 0.02462059 -0.005172973
0.04626809 0.02454064 -0.005236293
0.05027732 0.02107741 -0.0003064781
-0.04395862 0.03431478 -0.004512926
-0.03997463 0.03696398 -0.009906028
0.04359521 0.03483035 -0.005348983
-0.04192559 0.04419051 -0.003617292
-0.03884244 0.04573828 -0.007860628
0.03916962 0.04619151 -0.008057308
0.04204013 0.04392079 -0.003640477
-0.04069458 0.05309707 -0.001869128
-0.03792847 0.05491981 -0.005508118
0.03736069 0.05552351 -0.005051463
0.04077552 0.05092964 -0.001413922
-0.0342564 0.06514259 -0.00551599
0.02885325 0.06872015 -0.007613418
0.03301171 0.06505468 -0.003732718
-0.03086583 0.07109173 -0.003097145
-0.02506207 0.0753619 -0.005087926
-0.01764269 0.07935305 -0.005993265
0.01730202 0.0785421 -0.006227238
0.0249759 0.07386143 -0.004604202
-0.01370747 0.08104588 -0.004190498
-0.005169791 0.08218561 -0.005122282
0.005006841 0.08195723 -0.005578578
0.01262231 0.08113218 -0.003456583
-0.01379823 -0.1205115 0.008674018
-0.004943202 -0.1212483 0.00781888
0.00379074 -0.1210561 0.007770224
0.01170306 -0.1203732 0.008882596
-0.0329001 -0.1119814 0.00686279
-0.02504536 -0.1145595 0.004483497
-0.0157423 -0.1174254 0.003665552
-0.00505427 -0.1184536 0.002576556
0.005355148 -0.118355 0.003085716
0.01522596 -0.1167259 0.00394074
0.02429078 -0.1136995 0.005031079
0.03167724 -0.1112592 0.007564395
-0.04315024 -0.1030862 0.005960351
-0.03699874 -0.1073517 0.004162526
-0.02891029 -0.1098963 3.414309e-05
0.02918879 -0.1088629 0.001562839
0.03574238 -0.1062885 0.004722464
0.04215747 -0.1023484 0.00751774
-0.05183405 -0.09244548 0.006852375
-0.04714716 -0.09645185 0.003577078
0.03987922 -0.09948645 0.0009132415
0.0456625 -0.09516304 0.004454034
0.05096081 -0.090883 0.008665267
-0.05443521 -0.0843953 0.005630477
-0.04982644 -0.08930366 0.0008374988
0.04868907 -0.08684018 0.00205347
0.05254867 -0.08452188 0.006582843
-0.05576643 -0.07438543 0.004175329
0.05505807 -0.07503626 0.005341053
-0.06026225 -0.06247014 0.009684634
-0.05739727 -0.06524449 0.004430777
0.0566596 -0.06559566 0.004828796
0.06005232 -0.06326118 0.009745375
-0.0603112 -0.05633347 0.009246036
-0.05812688 -0.05459211 0.004000205
0.05794628 -0.05484544 0.004019193
0.06056996 -0.05394825 0.008620597
-0.06047477 -0.0449199 0.008806688
-0.05850238 -0.04504621 0.003443782
0.05822649 -0.04473165 0.0035258
0.06109619 -0.04384161 0.008618662
-0.06108883 -0.03477855 0.008419784
-0.05826592 -0.03509547 0.003207927
0.05832065 -0.03478418 0.002888603
0.061411 -0.03494286 0.007629171
-0.06149732 -0.02466916 0.006606504
-0.05841336 -0.02575993 0.00184695
0.05890625 -0.02598271 0.001492585
0.06159347 -0.0240174 0.005699572
-0.06181847 -0.01479781 0.006154313
-0.05919707 -0.01557564 0.001447849
0.05917612 -0.01374284 0.00146517
0.06204398 -0.01504206 0.006613091
-0.06115678 -0.006674323 0.007306262
-0.05831032 -0.00420792 0.002864255
0.05795548 -0.004289458 0.002542879
0.0612944 -0.005989463 0.008023256
-0.06052932 0.0002859061 0.0097742
-0.05686474 0.005352845 0.004941283
0.05728689 0.004918467 0.004938895
0.06036083 0.00227022 0.00955113
-0.05436572 0.01507239 0.004812384
0.05453304 0.01548752 0.004710726
-0.05239315 0.02494869 0.005621235
-0.04932526 0.02709649 0.001120371
0.04906891 0.02752802 0.0009112523
0.05252891 0.02489316 0.005636674
-0.05132736 0.03386836 0.008049432
-0.04853762 0.03612949 0.004014616
0.04820554 0.03563387 0.003878117
0.05116041 0.03350166 0.008309237
-0.04637025 0.04535073 0.005074942
0.04581382 0.04525586 0.00498839
-0.042943 0.05487642 0.004823122
-0.03988279 0.05959675 0.001384674
0.03897983 0.05868836 0.001717763
0.04247312 0.0546091 0.005846356
-0.04111126 0.06151395 0.008391853
-0.03686415 0.06593601 0.004638443
0.03565497 0.06532104 0.004399455
0.04049576 0.06082618 0.008761865
-0.0317664 0.0716208 0.004499147
-0.02513788 0.07676774 0.005360965
-0.01979149 0.0798551 0.001897242
0.01917249 0.07977915 0.001741407
0.02514395 0.07612619 0.004437949
0.03107131 0.07099742 0.005031785
-0.01504495 0.08152864 0.004844327
-0.005154896 0.08326057 0.004729326
0.005019275 0.0833362 0.004816602
0.0150681 0.08159979 0.004674648
-0.02383566 -0.121267 0.01683342
-0.01453384 -0.1229874 0.0148442
-0.004916624 -0.1242425 0.01493181
0.005224507 -0.1241116 0.01534409
0.01498604 -0.1224297 0.01549974
0.02257988 -0.1208068 0.01725002
-0.04197733 -0.1115185 0.01718576
-0.03529301 -0.1149525 0.01498016
-0.02650991 -0.1184289 0.01270338
-0.01997376 -0.119702 0.0100602
0.01864938 -0.1195191 0.01092485
0.02641532 -0.1176597 0.01399074
0.03454413 -0.1137847 0.01537325
0.04088159 -0.1107445 0.01815351
-0.05123006 -0.1026852 0.01802965
-0.04564222 -0.1064966 0.01439346
-0.03919939 -0.1096791 0.0100903
0.03854339 -0.1091241 0.01212057
0.04471755 -0.1051371 0.01510893
0.05050477 -0.1012695 0.01911488
-0.05453301 -0.09527888 0.01535427
-0.04930836 -0.09977129 0.01091203
0.04887331 -0.09824007 0.01289943
0.05280519 -0.09440719 0.01547709
-0.06082477 -0.08244094 0.01769194
-0.05809233 -0.08573684 0.01380694
0.05729064 -0.08509208 0.01477395
0.06049311 -0.08171108 0.01840361
-0.06199907 -0.0740696 0.01618938
-0.0594808 -0.07591535 0.01153129
0.05889873 -0.07619088 0.01156607
0.06160332 -0.07481282 0.01616021
-0.06247647 -0.06499428 0.01458289
-0.0599659 -0.06919537 0.01011991
0.05983952 -0.06876729 0.01026459
0.06285655 -0.06549966 0.01476404
-0.06295174 -0.05466209 0.01471845
0.06342833 -0.05494411 0.01480468
-0.06326363 -0.04492693 0.01469705
0.06430186 -0.04484828 0.01524985
-0.06444394 -0.03436439 0.01533008
0.06518094 -0.03517362 0.01488462
-0.0655066 -0.02496777 0.01542712
0.06606566 -0.02515129 0.01477747
-0.06520547 -0.01501573 0.01483699
0.06582169 -0.01452209 0.01525536
-0.06351507 -0.004634747 0.01531474
0.06407115 -0.005153123 0.01507174
-0.06162101 0.004512497 0.01528605
-0.05923893 0.007970995 0.0111295
0.05972419 0.008379502 0.01119977
0.06240673 0.004672606 0.01586467
-0.06073812 0.01274128 0.01835682
-0.05861108 0.01572725 0.01406653
0.05876927 0.01498877 0.01258757
0.06090762 0.01428092 0.01728504
-0.05675682 0.02515706 0.01484588
0.05720089 0.02558952 0.01530052
0.06007898 0.02156204 0.01919344
-0.05431879 0.03489411 0.01523803
0.05387824 0.03536616 0.0151698
-0.05155847 0.04392075 0.0157882
-0.04898515 0.0480566 0.01272752
0.04909887 0.04638256 0.0129737
0.0516152 0.04335434 0.01650438
-0.04624155 0.05514751 0.01478192
0.04600003 0.05527617 0.01534497
-0.04192208 0.06244235 0.0157676
-0.03719857 0.06757886 0.01501647
0.03719123 0.06669956 0.01460559
0.04164753 0.06196001 0.01538646
-0.03309303 0.07153829 0.01500405
-0.02526654 0.07724719 0.01437656
-0.01996163 0.07966179 0.01196187
0.02559388 0.07674724 0.01490792
0.03223933 0.07171136 0.01520798
-0.02144457 0.08184905 0.01886701
-0.01509423 0.08382326 0.01539861
-0.0047325 0.08580639 0.01415968
0.005613819 0.08588614 0.01500536
0.01417618 0.08349025 0.01603973
0.02069246 0.08063181 0.01962797
-0.01213465 0.09280615 0.01900044
-0.004808795 0.09545574 0.01802354
0.004949256 0.09417982 0.01832236
0.01053069 0.09161677 0.01945696
-0.001616207 0.1004124 0.0194116
0.001108307 0.1009925 0.01981536
-0.03209208 -0.1213778 0.02605235
-0.02506205 -0.123819 0.02540304
-0.01503028 -0.1262858 0.02493491
-0.004885622 -0.1276143 0.02520001
0.005077643 -0.1272058 0.02462934
0.01508346 -0.125618 0.02474873
0.02509617 -0.1228218 0.02544356
0.03182973 -0.1208399 0.0278968
-0.04446197 -0.1136492 0.02562763
-0.03715662 -0.1179432 0.02408981
0.02955591 -0.1195284 0.02138872
0.03609073 -0.1173746 0.02511227
0.04382549 -0.1123243 0.0258578
-0.05402697 -0.1044169 0.02583599
-0.04835487 -0.1088546 0.02226016
0.04766955 -0.1076589 0.0234378
0.05285059 -0.103186 0.02583225
-0.06135239 -0.092823 0.02720538
-0.05831296 -0.09610546 0.02381553
0.05657936 -0.09602733 0.02410102
0.06066707 -0.09163757 0.0277504
-0.06318288 -0.08540373 0.02536496
-0.05979842 -0.08981896 0.02074504
0.05949415 -0.08845814 0.0219611
0.06237448 -0.08432766 0.02486854
-0.06526724 -0.07509471 0.0248953
0.06504489 -0.07511594 0.02483009
-0.06652248 -0.06566542 0.02471318
0.06692152 -0.06517437 0.02506835
-0.06710562 -0.05491926 0.02500532
0.06768457 -0.05473959 0.0249571
-0.06759114 -0.04479275 0.02602214
0.06811009 -0.04497728 0.02506237
-0.06800485 -0.03514363 0.02521412
0.06900068 -0.0348932 0.02522897
-0.06850031 -0.02495234 0.02480805
0.06938267 -0.02553725 0.0246393
0.07008208 -0.02767812 0.02934757
-0.06780346 -0.01522181 0.02590211
0.06899595 -0.01551617 0.02533277
-0.06601806 -0.005371197 0.02457792
0.06715093 -0.004553202 0.02507024
-0.06416396 0.005156358 0.02422293
0.06553483 0.004913353 0.02576542
-0.06233193 0.01467882 0.02534849
0.06360604 0.01497039 0.02535499
-0.06067077 0.02309069 0.02670321
-0.05936089 0.02689447 0.0238299
0.05947444 0.02783487 0.0214962
0.06153361 0.02453471 0.02550796
-0.05760295 0.03494111 0.02524559
0.05796421 0.03525474 0.02453687
0.06054255 0.03180376 0.02852304
-0.05371343 0.04531601 0.02499248
0.05408024 0.04486671 0.02475908
-0.05080362 0.051251 0.02545405
-0.04754742 0.05601638 0.02471966
0.04766908 0.05654725 0.0243587
0.05097952 0.0514489 0.02535944
-0.04236352 0.0631334 0.02489914
-0.03831322 0.06796823 0.02390209
0.03836623 0.06813502 0.02445937
0.04268317 0.06347778 0.02548681
-0.03317201 0.07423428 0.02531441
-0.0280243 0.07831988 0.02295268
0.02726272 0.07787358 0.02351109
0.03317112 0.07378063 0.02568154
-0.03042461 0.0805298 0.02887275
-0.02470827 0.08468255 0.02476189
-0.01872475 0.08846801 0.0208316
0.01757243 0.08708711 0.02183762
0.02351118 0.08429942 0.02590231
-0.0225115 0.093987 0.02719875
-0.01590328 0.09581338 0.02266919
-0.009113064 0.09908244 0.02027499
0.007687485 0.09843955 0.0206503
0.01537913 0.0956426 0.02420142
0.0216833 0.09302687 0.02829163
-0.0206432 0.1020125 0.02919703
-0.01423055 0.1045468 0.02592609
-0.005014083 0.1056577 0.0225839
0.005340968 0.1046981 0.02286854
0.01471149 0.1039929 0.02743059
-0.01244189 0.1133197 0.0284578
-0.005223677 0.1148782 0.02653906
0.005596911 0.1152548 0.02730379
0.01171195 0.1123984 0.02878534
-0.004671916 0.1217409 0.02921987
0.003368286 0.1219041 0.02931835
-0.01155945 -0.1301923 0.03879596
-0.003530534 -0.1306276 0.03672972
0.00377407 -0.130571 0.03747339
0.01085265 -0.1300572 0.0395657
-0.04073599 -0.1203322 0.03867872
-0.03471925 -0.1226307 0.03534886
-0.02538996 -0.1261262 0.03440078
-0.01491838 -0.12877 0.03464099
-0.006082925 -0.1295336 0.03255037
0.006022626 -0.1293212 0.03271677
0.01536338 -0.1283224 0.0353301
0.0248221 -0.1255878 0.03490261
0.03400623 -0.1218595 0.03557435
-0.05171565 -0.1118169 0.03555811
-0.04528613 -0.1164571 0.0351648
-0.03812928 -0.1197182 0.03078121
0.03849893 -0.1189178 0.03374996
0.04476931 -0.1151499 0.03489134
0.05137471 -0.1109738 0.03736243
-0.06087942 -0.101535 0.03746677
-0.05661373 -0.1060696 0.0345572
0.04972941 -0.1095736 0.0302957
0.05518869 -0.105523 0.03470947
0.06035576 -0.1008513 0.03952037
-0.0636573 -0.09475205 0.03511867
-0.05923484 -0.09993167 0.03002637
0.05932571 -0.09812779 0.03195288
0.06252965 -0.09422319 0.03508691
-0.06705066 -0.08481518 0.03541552
0.06589366 -0.08552505 0.03504563
-0.07008642 -0.07169171 0.03952091
-0.06858359 -0.07548901 0.03515251
0.06821621 -0.07490459 0.03455108
-0.07032777 -0.06447301 0.03836166
-0.06922282 -0.06542262 0.03398988
0.06917745 -0.06537636 0.03332463
0.07041132 -0.06386525 0.03803524
-0.07049068 -0.05497382 0.03767833
-0.06948204 -0.05574948 0.03302576
0.06959621 -0.05588138 0.03178161
0.0706722 -0.05460257 0.03630644
-0.07048236 -0.04490396 0.03795886
-0.06949971 -0.04464822 0.03347906
0.06966985 -0.0440651 0.03108235
0.07083721 -0.044941 0.03633144
-0.07024214 -0.03713023 0.03864454
-0.06942275 -0.03341009 0.03437735
0.06986029 -0.03786005 0.0308137
0.07057557 -0.03479582 0.035705
-0.06915741 -0.02434424 0.03484732
0.06994759 -0.02141106 0.03209708
0.07035331 -0.02648076 0.03494603
-0.06846622 -0.0149704 0.03511376
0.06962754 -0.0147501 0.03481323
0.07008834 -0.01913491 0.03872449
-0.06747161 -0.005125416 0.03508402
0.06861535 -0.004825749 0.03491685
-0.06582172 0.00513244 0.03499175
0.06709915 0.005576584 0.03459304
-0.06372444 0.01535882 0.03532139
0.06562158 0.01539185 0.03528136
-0.06121391 0.02498503 0.03504705
-0.05992348 0.02959591 0.03374076
0.06362332 0.02467119 0.03494706
-0.058398 0.03468698 0.03481458
0.05930893 0.03845099 0.03479788
0.06128708 0.03327566 0.03551433
-0.05427276 0.04549655 0.0348413
0.05611452 0.04512917 0.03539851
-0.05085523 0.0518857 0.03434337
-0.04780255 0.05650744 0.03544349
0.04817619 0.05753838 0.03449137
0.05139808 0.05285572 0.03444732
-0.04262614 0.06447472 0.03506212
-0.03922371 0.06912994 0.03301786
0.03918687 0.06933405 0.03281047
0.04335921 0.06442845 0.03531813
-0.04021598 0.07178857 0.03936434
-0.03672622 0.07480749 0.03498316
0.03597045 0.07487396 0.03494099
0.04045216 0.07071473 0.03939319
-0.03317926 0.08470518 0.03574238
-0.02883919 0.08719227 0.0314422
0.02809324 0.08682559 0.03261505
0.0318979 0.08412856 0.03582266
-0.03204438 0.09429584 0.03744769
-0.02721533 0.09574195 0.03273816
0.02624089 0.09558267 0.03374246
0.03131395 0.09453195 0.03856607
-0.03118319 0.1038008 0.03917177
-0.02485407 0.1055898 0.03430088
-0.0193505 0.1076519 0.0306401
0.01875446 0.1070708 0.03146727
0.02472326 0.105134 0.03555402
0.03081096 0.1010531 0.03959206
-0.03068868 0.1100381 0.03989375
-0.02453868 0.1147171 0.03657434
-0.01663468 0.115813 0.03163463
0.01644535 0.1159998 0.0327993
0.02432864 0.1152537 0.0377646
-0.0214342 0.1210792 0.03602158
-0.01452747 0.1222917 0.0326063
-0.005938687 0.1250221 0.0308635
0.006181607 0.1241095 0.03094753
0.01455628 0.1229433 0.03377545
0.02231549 0.1211414 0.0376832
-0.02007871 -0.1301672 0.04797478
-0.01446209 -0.1308904 0.04592033
-0.005469305 -0.1319658 0.04495119
0.005056579 -0.1318411 0.04522038
0.01338657 -0.1306959 0.04599648
-0.04195641 -0.1208254 0.04608694
-0.03489968 -0.1244374 0.04453336
-0.02544365 -0.1281237 0.04422066
-0.01813593 -0.1295915 0.04187876
0.01766905 -0.1294708 0.04356587
0.02499803 -0.1275006 0.04418596
0.03544027 -0.1232071 0.04518361
0.04072168 -0.120405 0.04630356
-0.05334863 -0.1126731 0.04519246
-0.04651925 -0.1177527 0.04495877
0.04550362 -0.1170161 0.04468135
0.05232037 -0.1120349 0.04513203
-0.06227857 -0.1026758 0.04591994
-0.05820572 -0.1077431 0.04507313
0.05707371 -0.1071381 0.04483572
0.06123716 -0.1020246 0.04552913
-0.06601939 -0.09561557 0.04477745
0.0652615 -0.09513342 0.04541606
-0.07065412 -0.08323166 0.04710512
-0.06900735 -0.08624357 0.04320705
0.06850271 -0.08566791 0.04384243
0.07082265 -0.08167307 0.04881399
-0.07107214 -0.0747406 0.04506256
-0.06982937 -0.07731824 0.04081282
0.06949508 -0.07779676 0.04157041
0.07103263 -0.07442611 0.04563771
-0.07154746 -0.065115 0.04473592
0.07183657 -0.06547929 0.04567027
-0.07164165 -0.05446935 0.04462566
0.07218906 -0.05519538 0.04534787
-0.07167309 -0.04521882 0.0450802
0.07245748 -0.04486236 0.04535574
-0.07092272 -0.03545285 0.04511629
-0.06997589 -0.03118327 0.04033305
0.07190191 -0.03497639 0.04515117
-0.07053342 -0.02595397 0.04773037
-0.06960845 -0.02423656 0.04344209
0.07106901 -0.02495395 0.04499444
-0.07025632 -0.01706487 0.04970445
-0.0688745 -0.01461103 0.04541983
0.06968997 -0.01260984 0.04382775
0.07056763 -0.01679912 0.04675103
-0.06786384 -0.004654508 0.04546795
0.06907272 -0.004753746 0.04465343
0.07053437 -0.005515055 0.04969891
-0.07045991 0.009168509 0.0495524
-0.06649908 0.005393635 0.04614506
0.06800537 0.005198021 0.04537992
0.07081918 0.007948641 0.04947637
-0.07066586 0.01103259 0.04978552
-0.06428856 0.01401825 0.04524096
0.06596673 0.01464928 0.04619927
0.07090593 0.0113499 0.04963268
-0.06129725 0.02362358 0.04479493
-0.05954517 0.02866878 0.04607194
0.06367727 0.02474101 0.0452439
-0.05740234 0.03524197 0.04483924
0.05902543 0.03801196 0.04661622
0.0611794 0.03379178 0.04408581
-0.05357983 0.04466198 0.04475966
0.05565434 0.04511599 0.04557054
-0.05050721 0.05122383 0.04492916
-0.04831228 0.05625842 0.04506849
0.04861765 0.05765323 0.04490157
0.05128393 0.05272843 0.0454418
-0.04508099 0.06552731 0.04495741
0.04552097 0.06470048 0.04488418
-0.04314306 0.0743801 0.04568275
-0.03884424 0.07766855 0.04118787
0.03877735 0.07696398 0.0419198
0.04298387 0.07445123 0.04625351
-0.04286295 0.08503795 0.04671621
-0.03799212 0.08582415 0.04185072
0.03745747 0.08533487 0.04271067
0.04269602 0.08418118 0.04754537
-0.04297902 0.09518842 0.04740202
-0.03708346 0.09525055 0.04244641
0.03630637 0.09469321 0.04314297
0.04229809 0.09437742 0.04779599
-0.04277884 0.1052489 0.04797915
-0.03589744 0.1052313 0.04286679
0.02985372 0.1082994 0.0404956
0.03553735 0.1054948 0.04382031
0.04204781 0.1047783 0.04825008
-0.04181434 0.1115886 0.04753392
-0.03509492 0.1134395 0.04290878
-0.02964506 0.1176014 0.04012055
0.02892434 0.1158546 0.0406496
0.03457768 0.1133713 0.04369243
0.04117 0.112051 0.04790885
-0.02136395 -0.1303691 0.05530188
-0.01439666 -0.1316587 0.05476576
-0.005142223 -0.1328759 0.05503287
0.005155635 -0.1326787 0.05467524
0.01548109 -0.131109 0.05522048
0.0205089 -0.1302215 0.05721465
-0.04273294 -0.1213972 0.05432798
-0.03479103 -0.1259233 0.05527076
-0.02660557 -0.1290374 0.05512194
0.01945754 -0.1299555 0.05018902
0.02490635 -0.1288441 0.05460929
0.03543483 -0.124631 0.05524426
0.0416523 -0.1209926 0.05483646
-0.05371569 -0.113431 0.0548775
-0.04747838 -0.1182715 0.05470596
0.04685146 -0.1174658 0.05464427
0.05309634 -0.1127154 0.05529055
-0.06282516 -0.1038708 0.05522137
-0.05867017 -0.1087671 0.05412453
0.05827356 -0.1078902 0.05596707
0.06235166 -0.1030774 0.05604474
-0.07042315 -0.09049822 0.0586199
-0.06798176 -0.09485175 0.05474431
0.06698202 -0.09523836 0.05534326
0.07001624 -0.0901623 0.05911959
-0.07165462 -0.08448579 0.05548298
-0.06952514 -0.08926146 0.051572
0.06936032 -0.08846211 0.05289536
0.07139979 -0.08401528 0.05579573
-0.07305036 -0.0750971 0.05538983
0.0729898 -0.0749766 0.05544425
-0.07335504 -0.06443252 0.0544506
0.07379914 -0.06561467 0.05555503
-0.07325909 -0.05470903 0.05477967
0.07379812 -0.0555814 0.05477656
-0.07293794 -0.04495201 0.05481721
0.07359035 -0.04485049 0.05566724
-0.08097793 -0.03779522 0.05924809
-0.0751171 -0.03528059 0.05578707
0.07599764 -0.0349462 0.05567976
0.0812867 -0.03671932 0.05869252
-0.0729027 -0.0254787 0.05553163
-0.06955682 -0.0224301 0.05681932
0.07347605 -0.0245628 0.05519899
-0.07085322 -0.01553266 0.05463563
-0.06629961 -0.01318963 0.05548634
-0.05953075 -0.01174698 0.05622489
0.06535435 -0.01202496 0.05567236
0.07199784 -0.01545186 0.05546289
-0.07277097 -0.003360013 0.05608966
-0.0658047 -0.005659633 0.05517566
-0.05936024 -0.007194909 0.05695328
0.0655506 -0.006349615 0.05600545
0.07269455 -0.004302928 0.05533633
-0.07419755 0.005540154 0.05519211
-0.06856405 0.005696587 0.05488403
0.06942575 0.007252332 0.05805617
0.0747589 0.004730112 0.05474602
-0.07329417 0.01339855 0.05593339
-0.06450638 0.01417708 0.05509709
0.06540556 0.0146774 0.05473388
0.0741941 0.01362626 0.05583075
-0.06037483 0.02183164 0.05146049
-0.05874519 0.02582508 0.05552709
0.05976417 0.02939329 0.0583886
0.06148745 0.02475134 0.05458574
-0.05638236 0.03566801 0.05532188
0.05873291 0.03515088 0.05572548
0.06029515 0.03114332 0.05285916
-0.05362546 0.04513395 0.05529446
0.05542369 0.04500778 0.05449236
-0.05152952 0.05479712 0.05533971
-0.04966229 0.05776115 0.05096145
0.04988137 0.05933332 0.05047899
0.05248397 0.05546571 0.05506966
-0.05111083 0.06462744 0.05701342
-0.04890035 0.06536584 0.05249086
0.04868708 0.06636907 0.05184634
0.05166979 0.06528135 0.05673924
-0.0512176 0.07549412 0.05809638
-0.04828678 0.07571202 0.05274055
0.04802586 0.07507206 0.05237154
0.05136509 0.07565375 0.0573944
-0.05116086 0.08543295 0.05786595
-0.04815451 0.08539218 0.05286947
0.04756 0.08556648 0.05245986
0.05132089 0.08449217 0.05757487
-0.05111025 0.09503664 0.05810328
-0.04785608 0.09507544 0.05267472
0.04738839 0.09496241 0.05251314
0.05126293 0.09450133 0.05787827
-0.05086143 0.1019957 0.05838269
-0.04711911 0.1041185 0.05260884
0.04686375 0.1049605 0.05290782
0.05118022 0.1024536 0.05878272
0.04377768 0.111071 0.05015342
-0.0218275 -0.1303181 0.06469982
-0.01526045 -0.1314885 0.06562898
-0.00509071 -0.1328296 0.06505604
0.004919739 -0.1327597 0.06454132
0.0147374 -0.1313068 0.06504815
0.02143727 -0.1301051 0.06252542
-0.0428739 -0.1216277 0.06532549
-0.03519403 -0.125934 0.06513035
-0.02633637 -0.1290992 0.06611205
0.02608982 -0.1287289 0.06478929
0.03537279 -0.1250275 0.06489009
0.04219814 -0.1210739 0.06527667
-0.05357297 -0.1138629 0.06508745
-0.0477245 -0.1184792 0.06503114
0.04718274 -0.1178241 0.06467833
0.05315836 -0.1131615 0.06464905
-0.06314603 -0.1041069 0.06534013
-0.05888367 -0.1090342 0.06420421
0.0585294 -0.108244 0.06541225
0.06251349 -0.1036773 0.06486897
-0.07048979 -0.09163819 0.06455473
-0.06832691 -0.09605313 0.06523196
0.0679341 -0.09540785 0.06450639
0.07030152 -0.09093031 0.0663582
-0.07253219 -0.08465599 0.06518073
0.0720691 -0.08521062 0.06486116
-0.0742742 -0.07527148 0.06482654
0.07435941 -0.07493818 0.06492047
-0.07487969 -0.06436843 0.06463892
0.07522586 -0.06489303 0.06445163
-0.07458806 -0.05435143 0.0642186
0.07532453 -0.05579498 0.06467497
-0.0806707 -0.04047245 0.06230474
-0.07442553 -0.04513186 0.0650282
0.0748509 -0.04499231 0.06543613
0.08154742 -0.04021843 0.06196597
-0.08276899 -0.03522 0.06608587
-0.07549655 -0.03492468 0.06459919
0.07604633 -0.03448239 0.06500218
0.08347648 -0.03545331 0.06564588
-0.08151091 -0.02505253 0.0669482
-0.0755204 -0.02541833 0.06418179
0.07634802 -0.02472172 0.06410803
0.08234051 -0.02444367 0.06548714
-0.08255452 -0.01481247 0.0663838
-0.0745943 -0.01512703 0.06364382
0.07539767 -0.01511499 0.06398346
0.08341019 -0.01534141 0.06602912
-0.08234347 -0.004618092 0.06629249
-0.07466552 -0.006070831 0.06316531
0.07582255 -0.005997994 0.06338057
0.08359135 -0.005013495 0.06568906
-0.08157452 0.00304263 0.06680387
-0.07620136 0.004829208 0.06509675
-0.06698466 0.0075907 0.06542271
0.06842716 0.008214982 0.06585607
0.07564626 0.005607133 0.06584174
0.08199836 0.004463118 0.06584235
-0.07504797 0.01173639 0.06146195
-0.06239679 0.01490601 0.06554522
0.06496625 0.01403033 0.06510261
0.0769738 0.0124837 0.06194359
0.08028571 0.01102307 0.06206653
-0.06023376 0.02087593 0.06731591
-0.05865332 0.02556596 0.06480389
0.05975875 0.02901859 0.06271654
0.06102562 0.02443524 0.06499108
-0.05677598 0.03478451 0.06486934
0.05877541 0.0347364 0.06491757
-0.05520887 0.04453547 0.06486657
0.05702532 0.04456643 0.06482828
-0.05391398 0.0547855 0.06509524
0.05545555 0.05514279 0.06507365
-0.05334825 0.0647717 0.06520726
0.05462185 0.06523336 0.06502116
-0.0534004 0.07523675 0.06534547
0.05439979 0.07570201 0.06494348
-0.05335148 0.08516896 0.06446742
0.05441746 0.08466335 0.0650681
-0.05329607 0.09451963 0.06459782
0.0539182 0.09495316 0.06440184
-0.05188788 0.1015038 0.06060229
0.05277191 0.1009285 0.06184573
-0.02052625 -0.1301301 0.07152429
-0.01461142 -0.1307777 0.0739574
-0.00494816 -0.1317852 0.07473353
0.005050515 -0.1315684 0.07518706
0.01384034 -0.1306308 0.07397046
-0.04151249 -0.1213984 0.07488381
-0.0352175 -0.1247968 0.07472863
-0.0246118 -0.1285391 0.0749626
-0.01747435 -0.1295483 0.07796924
0.01732002 -0.1294974 0.07701599
0.02466984 -0.1280534 0.07510246
0.03536688 -0.1240844 0.07488547
0.04130556 -0.1207518 0.07466453
-0.05379567 -0.1130081 0.07447386
-0.04652221 -0.1182354 0.07522389
0.04600979 -0.1177212 0.07552849
0.0530119 -0.112832 0.074472
-0.06290114 -0.1037578 0.07510349
-0.0583685 -0.1087821 0.07518116
0.05794937 -0.1082871 0.07505208
0.06253085 -0.1032802 0.07472152
-0.07045207 -0.09124271 0.07456403
-0.06804922 -0.0961054 0.07516957
0.06753333 -0.09616423 0.07477104
0.07036556 -0.09065919 0.07424483
-0.07250297 -0.08518136 0.07514726
0.07245164 -0.08480464 0.0752266
-0.07469301 -0.07525773 0.07472651
0.07488452 -0.0750594 0.07507042
-0.07547973 -0.06487551 0.07456827
0.07594017 -0.06469497 0.07472498
-0.07542124 -0.05484335 0.07504131
0.07614952 -0.05488678 0.0751063
-0.07463566 -0.04499602 0.07525714
0.07560472 -0.04509181 0.07475641
-0.08390269 -0.03309921 0.07247626
-0.07405711 -0.03466312 0.07425448
0.07490423 -0.03506772 0.07534323
0.08469834 -0.03282546 0.0722459
-0.08461424 -0.02553886 0.07364431
-0.07446906 -0.02490665 0.07380276
0.07500417 -0.02460929 0.07415134
0.08538627 -0.02500136 0.07388023
-0.08409178 -0.01505449 0.07402635
-0.07427236 -0.01468611 0.07401305
-0.0698785 -0.01256517 0.07991017
0.07509298 -0.01513723 0.07457183
0.08539324 -0.01542496 0.07420416
-0.08377489 -0.006117404 0.07251809
-0.07481158 -0.004477101 0.07180775
-0.06805398 -0.00327099 0.07669203
0.06923998 -0.002104005 0.07772245
0.07443849 -0.005301281 0.07357097
0.08457199 -0.006133541 0.07282951
-0.08144776 0.001193688 0.07084211
-0.07504503 0.0004506491 0.07068945
-0.06544837 0.004868728 0.07477847
0.06715276 0.005642767 0.07534863
0.07372492 0.001015668 0.07082695
0.0834881 0.00149939 0.07090129
-0.06183692 0.01475979 0.07454884
-0.05966761 0.01839002 0.07927307
0.06401245 0.01488395 0.07448231
-0.06019196 0.02062054 0.07298885
-0.05860161 0.02490266 0.07578642
0.05964519 0.02872289 0.07806999
0.061064 0.02469355 0.07490637
-0.05674053 0.03471116 0.07464106
0.05867359 0.03541972 0.07532369
0.06017054 0.03014179 0.07078474
-0.05513893 0.0445811 0.07509063
0.05716681 0.04495874 0.07524291
-0.05404099 0.05454196 0.07494163
0.05599173 0.05472987 0.0749881
-0.05367299 0.06588425 0.07473338
0.05544049 0.06522257 0.074861
-0.05361545 0.07452852 0.07506503
0.05529832 0.07534093 0.07475626
-0.05364396 0.08483238 0.07500901
0.05507561 0.08473945 0.07510251
-0.05406038 0.09178652 0.07187803
0.05524909 0.09191021 0.07289693
-0.01071703 -0.1300067 0.0809868
-0.004093402 -0.1304425 0.08175104
0.003893889 -0.1303452 0.08188803
0.01048292 -0.1300702 0.08004374
-0.04086752 -0.1204579 0.08227932
-0.0348855 -0.1225883 0.08518996
-0.0254591 -0.126067 0.08491363
-0.01492622 -0.1284132 0.08478719
-0.005350276 -0.1291361 0.08670397
0.006516328 -0.129072 0.08611316
0.01515543 -0.1281777 0.08471599
0.02485305 -0.1260348 0.08433746
0.03476094 -0.1223281 0.08438614
0.04023127 -0.1203459 0.08166028
-0.05302642 -0.1118335 0.08443803
-0.0455478 -0.1168943 0.08490124
-0.0396622 -0.1192777 0.08859622
0.03899755 -0.1194027 0.0877243
0.04544422 -0.1162154 0.08530154
0.05186336 -0.1119087 0.08502456
-0.06177775 -0.1028515 0.08471633
-0.05729786 -0.1074496 0.08544604
0.05701385 -0.107016 0.08555323
0.06164179 -0.102269 0.084803
-0.06683288 -0.09483101 0.0851476
0.06590701 -0.09582208 0.0852285
-0.07143607 -0.08388378 0.08501475
-0.06935639 -0.08886781 0.08643668
0.06940088 -0.0883157 0.08666226
0.07158817 -0.08380395 0.08426524
-0.07350561 -0.074854 0.0852623
0.07369229 -0.0752761 0.08478837
-0.07453939 -0.06518253 0.08525752
0.07507754 -0.06469336 0.08555308
-0.07493451 -0.05447277 0.0843453
0.07563373 -0.05475756 0.08513791
-0.07419658 -0.04555924 0.08486766
0.07512683 -0.04460716 0.08523841
-0.07285784 -0.03520568 0.085643
0.0741676 -0.03487812 0.08500985
-0.0714705 -0.0251494 0.08468648
0.07281789 -0.02458771 0.08511898
-0.07079242 -0.01757451 0.081618
-0.06889459 -0.01354651 0.08525433
0.06984095 -0.01165199 0.08672486
0.07138956 -0.01540645 0.08428939
-0.06623343 -0.005356906 0.08503984
0.06796291 -0.004327285 0.08475375
0.07035724 -0.0089371 0.08145291
-0.0624934 0.005416073 0.08432803
-0.05967823 0.008093529 0.08923943
0.06483939 0.004590254 0.08475369
-0.06055524 0.01243662 0.08255553
-0.05810673 0.01569456 0.0860762
0.05903518 0.01755803 0.08800461
0.06199325 0.01375362 0.08371332
-0.0552719 0.02472122 0.08561854
0.05766181 0.02570141 0.08515798
0.06031429 0.02181968 0.08133206
-0.0530583 0.03512748 0.08449537
-0.04933515 0.03725317 0.08925588
0.05510225 0.03536412 0.08509101
-0.05227523 0.04458252 0.08310021
-0.04866646 0.04526529 0.08845679
0.04994432 0.04912324 0.08948314
0.0536758 0.04493434 0.08458838
-0.05166496 0.05477522 0.08257511
-0.04850965 0.05422375 0.08779804
0.04969743 0.05557836 0.08939788
0.05264002 0.05514444 0.08475682
-0.05136806 0.06487618 0.08251768
-0.04868579 0.06504306 0.08783927
0.04962925 0.06269005 0.08973523
0.05230742 0.06483894 0.08482695
-0.0512977 0.0757957 0.08292023
-0.04907615 0.07476426 0.0880613
0.05243912 0.07578278 0.08474322
-0.05156706 0.08195264 0.08251806
0.05312101 0.08247456 0.08315542
-0.03247089 -0.1211895 0.0931889
-0.02456472 -0.1229014 0.09553229
-0.0152967 -0.1251322 0.09498392
-0.004777941 -0.1264114 0.09495318
0.004859793 -0.1264448 0.09466863
0.01502038 -0.1250675 0.09486771
0.02424007 -0.1229222 0.09509199
0.03186761 -0.1210241 0.09334681
-0.05061948 -0.1108976 0.09192888
-0.04425438 -0.1140011 0.09512619
-0.03581146 -0.1181615 0.09655401
-0.02942402 -0.1196786 0.09941974
0.02877205 -0.1196944 0.09928633
0.03591793 -0.1177629 0.0965893
0.04429015 -0.1138653 0.09423644
0.05085807 -0.1106141 0.09077303
-0.06097021 -0.100855 0.09254543
-0.0551832 -0.1055601 0.09494635
-0.04924674 -0.1094795 0.09787604
0.04879475 -0.1091964 0.09808881
0.05501504 -0.1051587 0.09505985
0.06074436 -0.1009312 0.09179915
-0.06420469 -0.09402893 0.09488869
-0.05968824 -0.09825627 0.09895734
0.05938978 -0.09865426 0.09845189
0.06348564 -0.09488181 0.09489094
-0.07051978 -0.08274628 0.0909381
-0.06782857 -0.08515929 0.09566415
0.06778467 -0.08522906 0.09581768
0.07057348 -0.08181891 0.09178478
-0.07122091 -0.07391375 0.09414494
-0.06941737 -0.07615135 0.09827787
0.06932978 -0.07779566 0.09838992
0.07128468 -0.07443171 0.09462278
-0.0720776 -0.06525709 0.09511754
0.07270575 -0.06470705 0.09504797
-0.07275295 -0.05513217 0.09455656
0.07347857 -0.05509003 0.09481425
-0.07231989 -0.04527586 0.09490544
0.07320119 -0.04498421 0.09558426
-0.07136021 -0.03562308 0.09443095
-0.06939398 -0.03071011 0.09954455
0.07254548 -0.03501678 0.094658
-0.07057574 -0.02764818 0.09217545
-0.06881409 -0.02418419 0.09607915
0.06942389 -0.02194886 0.09790073
0.07120692 -0.02605989 0.09448984
-0.06657079 -0.01503395 0.09506266
0.06781996 -0.01393236 0.09576923
0.07051846 -0.01834743 0.09160542
-0.06306373 -0.005397879 0.09510984
-0.05941756 -0.001192369 0.09931719
0.06476616 -0.004722081 0.09521392
-0.06073947 0.002478495 0.09266341
-0.05752438 0.005908707 0.09605721
0.05843299 0.007417511 0.0973199
0.06195816 0.003847075 0.09356629
-0.05379944 0.01439296 0.09507887
-0.04930306 0.01761005 0.09881018
0.05582084 0.01492263 0.09531746
0.06020642 0.01110742 0.09052944
-0.0519373 0.02264384 0.09235019
-0.04728361 0.02478991 0.09698214
0.04838929 0.02656144 0.09783825
0.05268554 0.02439105 0.09376535
-0.05046219 0.03082488 0.09016735
-0.04494242 0.03555336 0.09543855
0.04660453 0.03540382 0.09654493
0.05134451 0.03324539 0.09136471
-0.04415482 0.04452991 0.09456193
0.04663118 0.04525566 0.09437722
0.05022113 0.04112342 0.09044434
-0.04381249 0.05550878 0.09503995
0.0458403 0.05464732 0.09526012
-0.04466243 0.06526543 0.0949425
0.04679504 0.06495281 0.09487202
-0.04607302 0.072843 0.09380661
0.04782233 0.07285626 0.09432789
0.05017761 0.07693879 0.09031389
-0.02252869 -0.1207168 0.1020761
-0.01483239 -0.1218076 0.1029418
-0.004882752 -0.1221777 0.104584
0.004574369 -0.1222126 0.1044666
0.01470025 -0.1216654 0.1030437
0.02250176 -0.1205886 0.1018191
-0.04199789 -0.1113262 0.1033639
-0.03453241 -0.1146979 0.1048211
-0.02593355 -0.1178591 0.1058003
-0.01614652 -0.1189424 0.1083565
-0.006234876 -0.1193978 0.1098868
0.006713415 -0.1196337 0.1093502
0.01499177 -0.1192427 0.1080101
0.02524572 -0.1175069 0.1064209
0.03493863 -0.1144008 0.1044726
0.04219455 -0.1113848 0.1025653
-0.05276308 -0.1021713 0.1042886
-0.04623438 -0.1064558 0.1060682
-0.03922632 -0.1094195 0.1089144
0.03905672 -0.108952 0.1093819
0.0460089 -0.1063226 0.1060608
0.05241255 -0.1028056 0.103376
-0.06152359 -0.09249847 0.1024735
-0.05651013 -0.09643112 0.1060789
0.05683818 -0.09590161 0.1060235
0.06152587 -0.09256521 0.1021356
-0.06364246 -0.08476757 0.1050667
-0.05946257 -0.08781289 0.1098393
0.05935107 -0.08894374 0.1091314
0.06373542 -0.08482406 0.1050919
-0.06638288 -0.07518869 0.1051391
0.06657538 -0.07497505 0.1055335
0.0700994 -0.07094643 0.1004895
-0.07026248 -0.06450458 0.1007472
-0.067625 -0.06501666 0.1056588
0.06792115 -0.06562428 0.1061528
0.07059035 -0.06488981 0.1013269
-0.07040191 -0.05457245 0.1009767
-0.06813443 -0.05508037 0.1056282
0.0684349 -0.05491866 0.1068245
0.07078086 -0.05436924 0.102056
-0.07028523 -0.04778257 0.1011598
-0.06792621 -0.04479095 0.105685
0.06864358 -0.04448374 0.1065676
0.07075677 -0.04509165 0.102181
-0.06736828 -0.03499935 0.1050419
0.06797663 -0.03476918 0.1065659
0.07091057 -0.03644089 0.1009323
-0.0652703 -0.02551146 0.1052049
0.06679969 -0.0249552 0.105123
0.07005282 -0.02792477 0.1000819
-0.0628682 -0.01605476 0.1042749
-0.05917518 -0.01353715 0.1089687
0.05977417 -0.01137528 0.1096737
0.0637285 -0.01441438 0.1050128
-0.06087941 -0.007471345 0.1017311
-0.05698967 -0.004271584 0.1058768
0.0585016 -0.003766447 0.106579
0.06181267 -0.006322827 0.1028846
-0.05323721 0.004206687 0.1044578
-0.04832664 0.007765864 0.107962
0.04926907 0.008617104 0.1090228
0.05531934 0.004354179 0.1046274
-0.05093531 0.01109816 0.1016769
-0.04551159 0.01559824 0.1049278
-0.03950574 0.01925317 0.1091305
0.04652913 0.01617816 0.1061956
0.05193058 0.01285155 0.1021605
-0.04261326 0.02390842 0.1033232
-0.03802085 0.02573664 0.107912
0.03921431 0.02675501 0.1089
0.04396234 0.02402424 0.1045892
-0.0409269 0.03327332 0.1016219
-0.0368895 0.03512565 0.1063414
0.03818078 0.03492725 0.1077173
0.04224651 0.03402138 0.1028517
-0.04035399 0.04458848 0.1003251
-0.03623694 0.04489516 0.105721
0.03779763 0.04519841 0.1066855
0.04137583 0.04544105 0.1019666
-0.04040094 0.05530547 0.1006551
-0.03689067 0.05513691 0.1054699
0.03742681 0.05442129 0.1076016
0.04153223 0.05566861 0.1023106
-0.04112785 0.06599081 0.1014035
-0.03719341 0.06372377 0.106775
0.03856668 0.06378295 0.1079864
0.04229181 0.06524378 0.1027945
-0.04227828 0.07100658 0.1007913
0.04353396 0.07083797 0.1020526
-0.03224209 -0.1112097 0.1118367
-0.02457236 -0.1127886 0.1141337
-0.01494346 -0.114878 0.1147062
-0.004753276 -0.1161688 0.1148688
0.004937658 -0.1162214 0.1147234
0.01538461 -0.1143808 0.1151371
0.02512177 -0.1131657 0.1131464
0.03284029 -0.111164 0.1112175
-0.0434716 -0.1029742 0.1131936
-0.03618991 -0.1052087 0.11611
-0.02692908 -0.1082747 0.1183605
0.01778724 -0.1099477 0.1199463
0.02615138 -0.1085503 0.1183482
0.03548 -0.1059498 0.1156744
0.04323985 -0.1031187 0.113032
-0.05284935 -0.09379915 0.1133637
-0.04681868 -0.09678133 0.1166002
-0.03954342 -0.09964426 0.1197529
0.03977753 -0.0996589 0.1194697
0.04653656 -0.09687525 0.1166797
0.05355996 -0.09323465 0.1130952
-0.06113951 -0.08212345 0.1108248
-0.05629059 -0.08554616 0.1153562
0.05613467 -0.08595485 0.1155095
0.06071097 -0.08239474 0.1117698
-0.06199897 -0.07436347 0.1128314
-0.05804405 -0.07553556 0.1175825
0.05825158 -0.07521779 0.1179892
0.06236028 -0.0745305 0.1128657
-0.06265526 -0.06513698 0.1138025
-0.05895047 -0.06567376 0.118552
0.05910891 -0.06554499 0.1192409
0.06283992 -0.06513684 0.1144605
-0.06329132 -0.05512471 0.1136479
-0.059273 -0.05430739 0.1189038
0.05965864 -0.05744996 0.1195684
0.06330113 -0.05471232 0.1148673
-0.06282784 -0.04517382 0.1140799
-0.05905253 -0.04483272 0.1189149
0.05974462 -0.04533228 0.1194901
0.06339289 -0.04477725 0.1148665
-0.06235763 -0.03446364 0.1131534
-0.05817458 -0.03430609 0.1185302
0.05932267 -0.03447383 0.1189515
0.06302766 -0.03517358 0.1143214
-0.06159771 -0.02607659 0.1115184
-0.05710132 -0.02442174 0.1169682
0.05812521 -0.0235884 0.1175788
0.06190144 -0.02559916 0.1131803
-0.06033824 -0.01987159 0.1109652
-0.0552801 -0.01481405 0.1149339
-0.04864585 -0.0100275 0.1199962
0.05657781 -0.01447253 0.1155435
0.06118741 -0.01825078 0.1114239
-0.05263209 -0.005991078 0.1132184
-0.04771852 -0.003238218 0.1170568
0.04831405 -0.00215416 0.1180276
0.05316868 -0.005315062 0.1146207
-0.05046618 0.001629091 0.1105782
-0.04449345 0.004637363 0.1147407
-0.03824781 0.007298621 0.1184265
